ply
format ascii 1.0
element vertex 1203
property float x
property float y
property float z
property uchar red
property uchar green
property uchar blue
end_header
-2.273070 6.502339 8.806613 136 113 96
-2.266110 6.530523 8.785929 113 97 81
-2.248465 6.531409 8.707417 139 118 99
4.076983 7.264030 -15.849602 63 69 74
4.082001 6.892991 -15.917686 31 90 162
-3.121541 -4.974265 12.218418 13 31 55
-3.118643 -4.653327 12.184746 22 82 154
-3.873575 -0.430689 15.111892 206 205 210
-3.311176 7.736572 12.899199 119 100 70
-2.278475 6.433517 8.865377 154 143 111
-2.270477 6.462918 8.838157 117 104 71
4.071893 7.195004 -15.954039 20 62 115
-3.105845 -4.782454 12.202102 70 125 182
-3.543311 7.653529 13.866738 143 134 107
-3.095550 7.535938 12.119795 129 111 83
-2.594532 6.815384 10.150044 61 64 34
-2.259835 6.477909 8.821430 164 154 141
-3.084981 -4.490154 12.183382 170 177 184
-3.828692 -0.801788 15.057050 131 133 139
-5.206008 2.936388 20.509476 154 154 154
-3.265964 7.749272 12.851026 133 114 90
-2.496665 6.699343 9.797714 156 140 109
-2.362532 6.634104 9.282307 65 48 21
4.048649 7.023437 -15.933960 11 52 118
-3.814346 -0.591892 15.098962 243 244 248
-4.781023 2.028767 18.930271 165 166 167
-3.148896 6.319614 12.433527 66 64 41
-3.242401 7.739799 12.791945 144 125 95
-2.856872 7.198546 11.276079 147 133 111
-2.325035 6.587996 9.150600 152 138 113
-2.235317 6.513579 8.822708 142 130 118
4.026945 6.727115 -15.907387 32 64 128
-3.083642 -4.989156 12.235252 32 46 65
-3.078576 -4.902897 12.218601 10 39 84
-3.062926 -4.573942 12.186551 25 62 119
-4.792263 2.343598 19.010139 231 231 231
-2.838670 7.248467 11.234292 163 145 112
-2.461121 6.743151 9.753693 128 114 88
-2.172371 6.479498 8.578532 134 118 98
-3.067176 -4.431176 12.211149 19 37 71
-2.224116 6.492496 8.835124 119 103 78
-5.193613 0.146984 20.838295 207 210 215
-5.272517 0.372004 21.150963 163 166 172
-3.343279 7.199840 13.396493 119 113 80
-2.346940 6.577133 9.376937 73 64 45
-2.208988 6.542133 8.808407 139 127 109
-2.151713 6.479123 8.597766 84 73 56
3.944752 7.297215 -15.790725 23 57 125
3.967880 6.920867 -15.892769 22 82 155
-3.036549 -4.783496 12.228536 40 106 164
-3.036985 -4.542498 12.199033 21 76 147
-3.768816 -0.807883 15.118475 152 153 157
-3.768764 -0.553396 15.121313 57 60 69
-4.724449 1.963877 18.997112 227 227 229
-4.716590 2.199149 18.978222 194 195 199
-3.138742 6.480664 12.593052 108 101 81
-3.173237 7.762487 12.731661 125 113 98
-2.432381 6.745564 9.744900 99 88 53
-2.210290 6.443141 8.855227 161 150 101
-2.203325 6.492842 8.829193 50 37 26
-5.094987 2.876424 20.569416 172 174 169
3.894384 7.285515 -15.771315 20 55 120
-3.018823 -4.919750 12.243197 34 76 132
-5.248480 0.361653 21.290903 57 60 70
-3.481970 7.867177 14.103761 44 50 36
-2.813274 7.228552 11.376993 183 168 137
-2.195592 6.445192 8.859009 89 74 51
-2.185706 6.503537 8.843867 97 77 55
-2.184053 6.558149 8.806577 94 79 59
-5.123313 0.106968 20.884832 152 157 168
-3.265813 6.958005 13.259652 116 99 74
-2.792728 7.272679 11.330243 153 137 103
-2.292162 6.612077 9.308181 158 145 129
-2.110441 6.432099 8.574925 123 109 92
3.861415 7.246157 -15.758188 127 137 162
-3.286588 7.370768 13.454429 61 63 52
-2.333454 6.599825 9.498410 140 126 93
-2.988527 -4.761345 12.244136 19 81 156
-3.708811 -0.828129 15.204545 86 91 98
-3.744306 -0.347244 15.344987 132 132 138
-4.789227 2.564742 19.637093 71 69 70
-2.177598 6.416512 8.892922 180 159 131
3.826836 7.236465 -15.738895 131 140 170
3.850364 7.170239 -15.840537 19 63 128
-2.961839 -4.592577 12.224087 28 90 162
-3.686534 -0.534615 15.223799 223 223 228
-4.630626 1.974140 19.096012 167 167 169
-4.993801 2.906322 20.621967 134 134 107
-2.237565 6.559716 9.190504 181 167 143
-2.156425 6.504374 8.862802 76 62 33
-2.150126 6.555628 8.835896 115 102 79
3.834610 6.955189 -15.860578 22 81 158
-2.955837 -4.805791 12.259395 67 144 202
-2.951363 -4.754889 12.258983 24 86 157
-4.609950 2.075819 19.104446 246 246 248
-3.203059 7.008784 13.248541 67 60 47
-3.215918 7.203786 13.294261 58 55 50
-3.088363 7.751842 12.784787 50 53 49
-2.077199 6.439895 8.580849 148 133 108
-2.073270 6.453615 8.549577 131 115 93
-2.943258 -4.939758 12.281432 32 76 137
-3.442990 8.316071 14.294727 48 48 40
-2.733018 7.246531 11.356028 161 146 112
-2.255443 6.582509 9.336843 134 118 98
-2.149559 6.419440 8.911770 138 121 98
3.796698 6.651062 -15.826730 159 182 209
-2.935515 -4.805466 12.267846 55 140 197
-3.664786 -0.923331 15.341838 49 68 88
-3.649955 -0.628245 15.251387 35 38 48
-3.657008 -0.502837 15.244607 167 168 173
-3.701793 -0.224687 15.466702 181 180 185
-4.583443 2.381589 19.133657 125 125 125
-4.673522 2.555920 19.513943 122 123 109
-3.032018 7.815515 12.638021 73 70 49
-2.246435 6.561047 9.359419 141 131 105
-2.130811 6.489748 8.873104 75 63 50
3.791619 7.132256 -15.878777 28 84 163
-2.928975 -4.948938 12.291995 17 56 105
-3.649768 -0.402289 15.283687 48 48 56
-2.512637 6.772794 10.500232 87 85 39
-3.630341 -0.465374 15.258722 90 94 99
-2.913240 -4.822946 12.316564 61 140 200
-3.633535 -0.877741 15.346931 49 63 82
-4.964279 0.135503 21.025724 187 188 193
-4.535966 2.023562 19.225399 202 201 205
-4.521472 2.192646 19.116735 182 183 186
-3.112469 6.854173 13.117732 77 71 49
-2.982885 7.554053 12.545632 51 51 43
-2.101573 6.435788 8.887130 168 145 126
-2.041562 6.474637 8.599581 102 86 64
-6.803133 -9.375028 28.926840 68 141 186
-4.509985 2.329655 19.184078 126 127 132
-2.954581 7.809071 12.557896 98 97 77
-6.795552 -8.992217 29.015741 67 144 201
-4.520865 1.935930 19.264915 128 129 131
-3.119373 7.119273 13.258910 37 37 33
-2.105752 6.433110 8.959641 132 106 89
-2.042106 6.476874 8.690380 101 82 61
-2.038780 6.472680 8.664258 93 79 64
-3.590178 -0.678694 15.369868 79 80 87
-3.571435 -0.098810 15.338547 172 172 174
-3.096845 7.061432 13.242231 50 51 45
-2.858324 7.661711 12.267035 120 117 80
-2.973628 8.330925 12.751703 72 68 38
-2.198076 6.535666 9.396275 178 160 142
-2.889184 -4.890239 12.449380 66 136 199
-3.573432 -0.519317 15.391515 67 69 76
-3.572118 -0.262605 15.414458 97 96 101
-2.229029 4.053327 9.593474 143 142 129
-3.082786 7.013460 13.272593 63 64 55
-2.919753 7.891654 12.552660 123 111 79
-2.536836 6.954767 10.895310 120 118 69
-2.121236 6.477380 9.108445 170 156 124
-2.066676 6.474570 8.863566 70 54 31
-3.580104 -0.427424 15.478972 185 186 191
-3.538586 -0.012891 15.317090 208 206 212
-4.458361 2.444602 19.307508 128 129 128
-4.676299 2.703658 20.245796 67 70 72
-3.465304 8.720073 14.980009 54 51 44
-2.416831 6.744188 10.422343 105 102 54
-2.063418 6.434329 8.896027 114 92 75
-2.013740 6.486851 8.695994 87 69 50
-4.637011 2.010446 20.150024 209 209 213
-3.037740 6.837832 13.201276 120 118 98
-3.046670 7.050931 13.226990 51 53 47
-2.015103 6.475341 8.743343 113 103 87
-1.991651 6.487556 8.618934 148 132 107
-7.331185 -9.343092 31.987583 59 137 184
-3.518382 -0.599883 15.391374 159 160 164
-4.446767 2.076143 19.414057 130 132 134
-3.054984 8.760739 13.304112 63 61 43
-2.139725 3.696513 9.380615 171 170 166
-3.023884 6.936687 13.245862 128 127 107
-3.056818 8.861057 13.395426 105 99 71
-2.111415 6.518684 9.230671 120 107 73
-2.042996 6.434261 8.926650 144 129 106
-2.034263 6.438663 8.886445 159 144 120
-3.486713 -0.451209 15.343349 142 145 149
-3.471730 -0.121190 15.264628 238 238 238
-3.055425 7.341643 13.446658 62 64 51
-3.038748 8.218837 13.358933 65 66 54
-2.119751 6.528037 9.312252 120 105 76
-3.013876 8.226748 13.328194 52 53 39
-2.467077 6.983006 10.903983 119 118 70
-2.100706 6.535561 9.254632 132 119 84
-2.038922 6.441938 8.987835 152 136 111
-2.019281 6.437620 8.896331 135 122 97
-1.973312 6.425897 8.714059 91 77 52
-3.463269 -0.664373 15.389944 233 236 240
-4.405828 1.988343 19.563334 195 195 198
-2.069439 6.507944 9.184834 133 122 92
-4.370770 2.081507 19.491379 163 165 167
-2.955497 7.058935 13.195674 46 47 36
-2.440908 6.963243 10.879972 119 118 70
-2.027826 6.468351 9.073434 144 128 107
-1.997399 6.491281 8.895648 107 94 79
3.648279 7.408257 -16.324846 21 51 108
-3.413368 -0.323030 15.328043 134 133 135
-4.336116 2.210029 19.422119 174 176 180
-4.356419 2.493882 19.546207 108 112 114
-2.091105 3.665788 9.382490 155 152 144
-2.906345 7.767461 12.999962 45 48 38
-2.043617 6.487534 9.142935 116 102 78
-1.925022 6.488386 8.624701 147 127 100
-6.577881 -7.359411 29.664106 195 203 208
-2.943139 6.932465 13.246075 239 238 234
-2.922059 7.732713 13.135513 59 58 53
-1.994507 6.457921 8.966468 122 104 81
-1.931488 6.419861 8.680031 66 60 44
-2.115034 4.045520 9.576804 129 126 111
-2.731239 7.573887 12.362589 52 50 40
-2.303182 6.716112 10.437989 75 79 32
-2.001467 6.469672 9.046064 143 128 107
3.565808 7.303432 -16.198206 30 89 163
-6.149693 -7.470654 28.062588 18 49 89
-2.064721 3.818750 9.395109 127 125 110
-2.105701 3.996502 9.587815 140 137 122
-2.307633 6.701896 10.462409 128 129 89
-2.035411 6.482820 9.251670 182 174 148
-1.958169 6.490286 8.892013 153 140 115
3.565160 6.827251 -16.257093 179 191 206
-6.812602 -10.360192 31.125648 61 149 198
-4.328201 2.373210 19.790264 154 154 156
-4.376039 2.503782 20.013136 131 134 136
-1.960652 6.475255 8.940826 153 141 124
-6.327463 -8.598514 29.018160 57 138 186
-6.296488 -8.116032 28.896179 31 63 104
-6.143310 -5.770231 28.243853 198 202 206
-2.043883 3.677301 9.384013 96 93 77
-2.848467 7.706696 13.081553 55 57 44
3.456538 7.320656 -15.933553 117 118 125
3.530345 7.146187 -16.276886 23 78 159
-6.281891 -9.048643 28.954191 56 137 192
-2.774909 7.605107 12.797557 58 61 50
-2.260045 6.718080 10.413475 109 115 62
-2.005215 6.485318 9.217894 186 168 143
-1.961833 6.467498 9.031833 117 105 90
-1.950549 6.468969 8.965928 109 93 79
-1.889271 6.413142 8.693887 100 83 56
-1.985802 6.501879 9.204951 161 143 121
-1.876129 6.443440 8.677454 135 117 91
-1.872291 6.468950 8.655275 127 113 84
-6.158484 -7.117758 28.664320 176 179 183
-2.007262 3.568891 9.360769 152 146 130
-2.730932 7.593769 12.679156 44 47 36
-2.353334 6.831176 10.980443 66 64 51
-2.573067 7.796738 11.952916 95 83 64
-1.872469 6.380218 8.714417 132 117 93
-2.614963 7.416140 12.226805 56 56 44
-6.218244 -9.554010 29.254509 33 65 108
-6.103699 -8.375173 28.736937 56 144 184
-6.103063 -8.059498 28.672968 20 48 87
-2.219901 6.663732 10.430352 127 129 88
-1.861547 6.369731 8.717238 138 122 95
-6.082937 -8.764740 28.881912 29 97 156
-1.962359 6.452607 9.237409 88 68 46
-1.913080 6.459433 9.015753 152 134 111
-1.831611 6.486239 8.650625 96 84 58
3.327121 7.262999 -15.794010 151 159 171
3.415772 7.083505 -16.231627 24 80 154
3.426342 6.821777 -16.223097 118 129 141
-6.055943 -5.910349 28.838919 193 195 201
-1.975149 3.720483 9.363966 122 119 102
-1.976924 3.752631 9.380180 113 110 93
-1.816629 6.525482 8.631156 80 69 45
-2.219229 6.687331 10.588629 54 50 35
-1.879410 6.471689 8.937487 158 141 115
-1.822528 6.427634 8.685880 107 93 64
3.298091 7.156552 -15.805722 18 46 93
-1.944847 3.595793 9.331859 152 146 131
-1.887226 6.447808 9.053405 138 114 96
3.379528 7.168885 -16.240551 17 60 125
3.370372 7.075855 -16.216030 18 60 124
3.359779 6.861270 -16.184261 29 65 129
-6.007162 -10.270885 28.988642 79 138 196
-2.507595 7.385864 12.081840 67 68 52
-1.791920 6.508066 8.617857 120 113 80
-6.062810 -10.173506 29.418095 33 69 122
-5.966865 -9.072481 28.958382 73 135 199
-5.948552 -8.604502 28.889198 57 117 164
-1.942834 3.538993 9.385656 143 144 138
-2.652469 7.609742 12.851239 62 66 50
-2.230336 6.769267 10.791802 51 49 35
-2.145323 6.664459 10.415030 140 141 121
-1.892873 6.468814 9.177551 106 83 65
-1.831869 6.427665 8.882372 172 156 132
-1.807124 6.357319 8.734305 147 126 97
-6.116771 -9.913797 29.774057 26 68 122
-5.964299 -7.209474 29.011787 81 87 90
-2.266823 6.887121 11.023398 41 41 31
-1.910811 6.415144 9.293407 139 121 96
-1.879832 6.471536 9.154438 154 134 110
-1.801509 6.371156 8.728540 144 128 98
3.216816 7.280503 -15.747315 30 81 124
3.314968 7.052712 -16.191006 27 86 160
-6.008098 -9.555700 29.395023 25 45 95
-5.893758 -8.404622 28.834661 24 62 94
-5.868073 -8.040850 28.691086 26 42 71
-5.920759 -7.729168 29.039282 17 42 69
-3.361545 2.450747 16.460405 129 137 139
-2.324662 7.016983 11.323311 65 63 50
-5.871922 -8.811004 28.974377 16 51 105
-5.864328 -7.820962 28.957169 28 44 66
-5.902587 -6.638840 29.065262 68 102 132
-5.875377 -5.088648 28.899288 33 63 100
-2.870658 8.080874 14.086995 112 96 76
-2.625943 7.559011 12.939880 60 58 45
-2.622283 7.607439 12.896785 60 62 44
-2.583218 7.666891 12.745669 76 70 54
-1.830061 6.450317 8.991014 153 135 100
-1.777249 6.421387 8.728623 149 133 106
-1.709677 6.365130 8.390613 136 137 97
-5.874135 -10.316572 29.133680 37 101 162
-5.850518 -5.928954 28.941217 151 152 154
-1.892304 3.683378 9.375436 150 144 130
-2.330683 7.109645 11.515466 75 72 55
-1.788246 6.388143 8.800597 80 64 41
-1.763884 6.427920 8.671784 139 123 95
-1.747826 6.486112 8.640707 144 145 107
-5.927197 -10.174640 29.505171 24 75 144
-5.829731 -7.354740 29.078312 19 41 77
-5.866839 -7.112778 29.246725 18 30 47
-5.834209 -6.234893 29.025270 24 41 67
-5.715870 -5.291085 28.373299 37 64 88
-2.167922 6.758874 10.747145 62 66 53
-2.097881 6.624111 10.412635 60 61 47
-1.762359 6.387856 8.729335 102 85 66
3.174179 7.140203 -15.808422 24 82 156
3.240213 6.783569 -16.159468 144 153 159
-5.805132 -9.067400 29.036249 67 146 197
-5.784193 -8.425864 28.895607 31 100 145
-5.747179 -8.096387 28.801880 24 42 73
-5.806479 -7.193324 29.141224 29 33 42
-1.879310 3.527322 9.405184 157 158 153
-2.522198 7.523670 12.602607 77 74 53
-2.045938 6.686094 10.222277 146 131 89
-1.808563 6.425261 9.026978 118 96 71
-1.745725 6.438356 8.722761 83 68 47
-1.736971 6.445693 8.657248 165 151 122
3.136008 7.277995 -15.740864 31 71 116
-5.758996 -8.607856 28.959627 54 130 172
-5.791722 -7.731243 29.149223 28 60 98
-5.741660 -6.039580 28.974525 26 50 88
-3.645164 -0.940532 18.259176 52 62 70
-4.799762 2.548491 24.168467 197 189 176
-1.853250 3.786781 9.330931 114 112 92
-2.724840 7.762298 13.686678 112 100 78
-2.599628 7.553877 13.037991 122 108 91
-2.084646 6.644565 10.483257 57 58 44
-1.676974 6.365534 8.404220 132 133 93
-5.765605 -10.725741 29.122517 11 28 54
-1.859821 3.644224 9.414783 116 114 102
-1.831781 3.809761 9.281960 138 133 117
-2.469732 7.423246 12.460499 75 74 51
-2.254823 7.071257 11.396315 75 74 62
-1.930761 6.548843 9.752667 124 112 92
-1.675408 6.381504 8.445621 96 92 54
3.121094 7.148621 -15.795037 24 76 150
-5.742362 -10.689392 29.143148 39 74 130
-5.729127 -7.197800 29.179819 46 55 66
-5.745677 -6.664089 29.177299 60 102 139
-5.599460 -5.328895 28.512024 35 71 104
-4.801636 2.572648 24.394451 191 191 185
-3.305284 2.576018 16.792238 129 138 143
-2.095996 6.689519 10.637420 51 53 44
-2.060165 6.588077 10.396439 61 62 47
-5.781178 -10.296476 29.478222 28 63 120
-5.689660 -8.704888 29.022469 20 89 147
-2.419336 7.515453 12.347782 65 56 43
-1.967174 6.625161 10.047593 141 127 95
-1.820862 6.433190 9.290065 146 125 102
-1.760855 6.369436 8.978036 179 158 134
-1.751238 6.411014 8.902057 157 137 112
-1.718935 6.437779 8.743155 77 64 39
-1.698060 6.461695 8.649421 83 69 47
3.152761 6.807068 -16.147610 179 196 213
-5.699164 -10.664917 29.205843 28 77 143
-4.503655 2.651870 23.108448 153 154 157
-1.903545 6.538220 9.760449 103 90 69
-1.719814 6.389740 8.810434 150 133 111
-5.655666 -10.879697 29.203979 153 171 197
-5.718346 -9.634489 29.535620 35 74 127
-1.865799 4.335338 9.597479 141 137 117
-2.421098 7.432672 12.485416 105 99 75
-1.978409 6.619936 10.203057 95 81 61
-1.811031 6.429217 9.323643 168 147 127
-1.742818 6.388633 8.962869 165 143 120
3.052172 7.286636 -15.753058 30 86 114
-5.630975 -10.653986 29.222862 28 79 145
-5.630125 -9.146548 29.165710 65 148 202
-5.590850 -8.470028 29.019035 49 138 179
-5.637867 -7.225977 29.337952 46 55 70
-1.803639 3.632500 9.352272 149 149 141
-2.377244 7.508329 12.334590 83 76 58
-1.766409 6.434843 9.127738 129 112 85
-1.736579 6.410758 8.955791 138 117 93
-1.690690 6.430240 8.747640 136 121 92
-1.672100 6.451043 8.639782 173 157 132
-5.604661 -10.362359 29.259190 66 149 203
-5.702381 -10.341756 29.711594 25 70 130
-2.239696 7.169726 11.627037 62 62 45
-1.995101 6.576807 10.363297 59 61 46
-1.853736 6.568842 9.651911 107 84 66
-1.766898 6.429763 9.200649 141 121 97
-5.587488 -10.874960 29.281570 42 47 55
-1.801618 3.604820 9.450534 135 140 136
-1.897813 6.535228 9.911771 121 108 73
-1.864053 6.507456 9.747308 163 151 114
-1.703172 6.433200 8.910908 221 205 189
3.074724 7.074435 -16.172411 23 81 158
-5.562947 -9.638575 29.343464 11 24 42
-5.527078 -8.698670 29.117441 45 118 171
-2.363708 7.469085 12.483978 65 61 31
-2.187880 7.205158 11.542104 59 63 48
-1.721465 6.395290 9.074487 123 103 81
2.967463 7.114186 -15.717583 20 76 150
-5.514110 -6.145232 29.166245 26 66 112
-5.425982 -5.402046 28.760105 43 103 138
-1.723084 3.597881 9.151640 139 136 122
-1.657310 6.427773 8.770620 139 123 97
-1.651912 6.439947 8.728174 145 127 100
2.954473 7.050213 -15.735562 20 76 155
-2.320851 7.555212 12.362383 69 62 42
-1.828700 6.524413 9.728826 139 131 93
-1.695564 6.376219 9.009802 130 109 86
-1.686531 6.435687 8.975879 97 84 63
-1.580981 6.332345 8.400965 94 89 58
3.108230 7.335900 -16.682880 24 81 158
-5.524365 -10.549861 29.547922 21 86 154
-5.503843 -9.610520 29.458742 37 77 129
-1.744100 3.848052 9.349499 115 112 93
-5.438759 -9.153426 29.322149 42 133 186
-5.496832 -7.323285 29.710022 35 43 60
-5.521111 -6.868915 29.795679 11 57 93
-1.912429 6.553795 10.295992 74 74 61
-1.888829 6.578190 10.182342 53 49 38
-1.837512 6.485226 9.883467 164 152 116
-1.797488 6.559360 9.660201 143 130 112
-1.723283 6.442800 9.306040 103 91 70
-1.656228 6.444702 8.912918 186 168 150
-1.568675 6.299811 8.441631 73 63 49
2.913227 7.269341 -15.735764 64 82 118
-5.460511 -7.432692 29.633329 138 144 150
-1.786848 6.542199 9.684851 85 77 51
-1.602350 6.403605 8.657135 176 160 137
-5.166584 -8.150245 28.179947 158 188 206
-5.482717 -6.136538 29.936203 102 106 110
-1.881850 6.573559 10.266410 56 56 44
-1.789885 6.458762 9.737226 124 109 66
-4.904835 -10.702206 26.967243 51 127 188
-5.436495 -6.821523 29.860855 54 114 150
-4.251891 2.536832 23.321589 197 197 197
-5.174530 -10.614457 28.545895 113 115 123
-1.786366 6.434066 9.829760 105 95 70
-1.665301 6.377928 9.137842 160 144 121
-1.520890 6.246093 8.347374 139 130 92
-1.521356 6.302001 8.373052 143 129 95
2.856646 7.183365 -15.830368 19 66 136
-1.849620 6.575767 10.234385 62 62 49
-1.745797 6.459499 9.659808 133 118 75
-1.601181 6.442216 8.834962 179 163 140
-5.453850 -5.691203 30.429840 65 131 170
-6.002000 8.995611 33.564911 146 148 147
-1.700951 6.511822 9.492986 103 88 70
-1.622841 6.373182 9.010002 124 105 80
-5.408161 -6.853198 30.333902 19 61 104
-1.741501 6.424474 9.773818 142 132 91
-1.729609 6.459941 9.660810 137 123 80
-1.611663 6.357180 9.049356 120 106 85
-1.517518 6.333390 8.491376 155 143 105
-1.829618 6.558951 10.285748 60 58 46
-4.988648 -11.541483 28.425901 34 75 126
-5.051825 -8.620731 28.720703 29 111 166
-5.327533 -8.527584 30.272730 23 53 87
-5.710896 -5.157341 32.391956 11 60 92
-4.012874 2.398687 22.783466 212 212 212
-2.093295 7.213997 11.851716 54 53 23
-2.064682 7.201004 11.717920 122 120 98
-1.716773 6.397785 9.729794 160 151 112
-1.629214 6.377922 9.225815 153 134 112
-1.584144 6.417532 8.996403 115 92 73
2.902432 7.239470 -16.536835 18 76 153
-1.837099 6.117614 10.487139 74 68 48
-2.014896 7.181841 11.496685 81 76 62
-1.751851 6.445802 9.982455 68 70 59
-1.728719 6.393994 9.859260 55 56 44
-1.693566 6.477629 9.641156 96 80 57
-1.566244 6.425892 8.936576 180 163 139
-5.003682 -11.923266 28.764032 23 31 48
-4.983952 -11.353668 28.616476 63 145 202
-4.994976 -9.013838 28.684378 63 150 200
-2.013197 7.183074 11.552951 75 69 54
-1.571868 6.401988 9.004743 177 160 129
2.867163 7.612827 -16.568472 35 40 51
-3.485744 1.810015 20.177694 189 189 187
-1.511335 6.344066 8.718495 179 163 129
-1.487777 6.311611 8.564549 160 140 113
-1.440137 6.213266 8.324735 96 84 60
2.855052 7.251625 -16.538496 24 81 160
-4.966813 -9.550359 28.868450 113 116 124
-1.661290 6.400485 9.688938 129 119 82
-1.564356 6.356518 9.052163 57 44 28
-1.560525 6.373176 9.032662 71 58 39
-4.907907 -10.717255 28.702642 191 203 213
-4.894656 -10.098623 28.685905 27 73 141
-1.570414 6.362469 9.170638 89 69 48
-2.012897 7.163806 11.872380 113 100 65
-1.740676 6.539584 10.220982 63 65 52
-1.580364 6.384010 9.279818 143 123 105
-1.751967 6.082502 10.418923 105 99 71
-1.655110 6.389927 9.804425 48 48 36
-1.576065 6.390885 9.324708 100 83 65
-1.477674 6.363743 8.709491 121 109 75
2.770900 7.218974 -16.498709 26 85 164
-4.818603 -8.427558 28.765955 54 147 182
-3.568019 1.868958 21.248337 217 217 217
-1.927398 7.089042 11.475654 100 94 70
-1.869872 7.057819 11.173687 57 58 44
-1.598136 6.377454 9.509286 174 153 123
-4.811285 -6.670413 28.893454 18 71 107
-4.767007 -5.916981 28.586269 175 179 187
-1.905326 7.148696 11.424984 89 83 68
-1.585623 6.388813 9.463947 150 132 107
-1.480092 6.367411 8.853987 132 119 99
-1.442765 6.350808 8.644677 125 111 82
-4.880612 -4.349720 29.458838 37 90 126
-3.139362 2.700808 18.957832 168 171 170
-1.940148 7.075011 11.690463 149 143 104
-1.465070 6.360217 8.819891 126 109 93
-1.372743 6.229841 8.260887 180 170 139
-1.370388 6.235097 8.220210 34 27 17
2.714986 7.204910 -16.490475 25 84 157
-4.742482 -12.037033 28.862703 106 110 124
-4.762670 -11.521076 28.994974 59 117 176
-4.770384 -10.137811 29.070879 24 66 125
-1.369906 6.189638 8.293811 119 104 72
2.714570 7.613156 -16.511742 134 138 139
-4.707360 -10.277566 28.844942 48 128 184
-3.979718 1.953214 24.396076 213 215 214
-1.619058 6.400566 9.878378 51 52 38
-1.477969 6.378805 9.024757 164 149 123
-1.822711 7.068673 11.195216 73 70 58
-1.387923 6.282615 8.493793 135 119 95
2.684201 7.497115 -16.502964 12 50 105
2.679069 7.309739 -16.506838 22 55 123
-4.661664 -12.145366 28.889135 29 66 125
-4.658379 -10.796387 28.889126 118 129 152
-4.643358 -9.088710 28.764990 30 91 152
-4.621708 -8.643736 28.629553 1 47 93
-3.550811 2.135649 22.072283 245 245 245
-1.602723 5.555386 9.942280 116 111 91
-1.864363 7.036809 11.528827 162 150 111
-1.854848 7.129297 11.474282 121 106 79
-1.515783 6.395962 9.353723 110 98 67
-1.441645 6.426724 8.958655 129 111 87
-1.341110 6.208253 8.279278 76 68 40
-1.341206 6.235639 8.275722 141 136 86
-4.638350 -11.763168 28.983158 23 49 92
-4.565476 -8.354257 28.527166 24 75 123
-4.860147 -4.652849 30.207781 30 61 95
-1.529909 6.355013 9.541898 71 63 39
-1.456823 6.354825 9.051797 77 59 40
-1.401803 6.352428 8.687926 179 166 147
-4.609457 -10.995988 28.863729 15 51 105
-4.597893 -10.604040 28.839209 23 39 76
-4.668342 -9.801692 29.239416 43 75 112
-4.511472 -7.105794 28.409840 158 163 171
-1.471904 6.351929 9.223914 95 74 50
-1.397594 6.340141 8.763537 127 110 87
2.612638 7.196136 -16.464054 27 84 161
-4.613348 -9.532272 29.146931 14 37 74
-4.488922 -8.011935 28.428598 32 50 78
-4.474580 -7.524603 28.355534 27 55 91
-4.507724 -6.908419 28.492022 28 47 71
-4.521818 -6.822141 28.518251 30 51 75
-1.555603 6.369738 9.795974 61 58 43
-1.501992 6.350216 9.455709 139 125 87
-1.316677 6.176373 8.305182 156 140 115
-1.308750 6.225684 8.220646 85 77 54
-4.543823 -6.647236 28.947216 65 110 144
-1.808468 7.108567 11.471008 99 84 54
-1.394771 6.357563 8.827993 78 62 48
2.579075 7.685881 -16.472689 23 62 133
-4.570391 -9.983756 29.216251 25 66 128
-4.445263 -8.391898 28.579929 3 49 80
-4.443911 -6.949263 28.432104 21 38 57
-4.482915 -5.925992 28.715425 161 162 168
-3.872492 0.854649 24.649559 175 176 180
-1.375672 6.332596 8.757998 137 125 99
-4.490789 -7.876101 28.917320 15 37 68
-4.397480 -7.225873 28.420553 31 39 68
-1.435699 6.352165 9.220246 124 102 76
2.541159 7.556304 -16.455132 30 40 63
-4.478794 -11.786528 29.022894 29 73 134
-4.487042 -11.562705 29.092049 48 117 175
-4.453744 -10.341110 28.984644 26 88 151
-4.491712 -10.058749 29.153996 30 69 140
-4.512623 -9.841396 29.392159 46 77 128
-4.422883 -8.705288 28.786331 31 72 116
-4.441400 -6.228359 28.843306 22 39 63
-3.444659 2.087394 22.346554 205 207 206
-1.793139 7.159747 11.590084 117 100 65
-1.733346 7.079063 11.212341 60 61 47
-1.397440 6.343481 9.041463 123 114 100
-1.388483 6.376231 9.017124 98 88 68
-1.343516 6.312248 8.685678 119 104 81
-1.305508 6.284054 8.459400 92 77 54
-1.271289 6.229043 8.226013 93 85 62
2.530802 7.306040 -16.466537 19 73 153
-4.389968 -8.392417 28.599993 56 107 131
-4.356061 -8.014231 28.418680 27 53 88
-3.775068 0.819217 24.649559 163 164 167
-3.767033 0.963068 24.669838 191 192 197
-3.809445 1.672115 24.838326 187 188 191
-1.764540 2.967118 11.531199 141 142 141
-1.400400 6.343860 9.106362 86 69 50
-1.309506 6.307264 8.529697 99 83 58
-4.464525 -9.661194 29.377779 18 46 85
-4.411266 -9.143634 29.080837 48 116 175
-4.345058 -7.588273 28.544115 28 60 99
-4.367575 -6.038045 28.661282 16 49 82
-1.998528 2.776967 13.213122 181 181 176
-1.754264 3.006152 11.521723 154 156 155
-1.802965 7.100586 11.837475 125 109 72
-1.774896 7.078501 11.664691 113 105 66
-1.748824 7.106055 11.504413 144 127 92
-1.452124 6.333598 9.498445 98 93 82
-1.433744 6.336730 9.425154 170 153 111
-1.417996 6.378035 9.323267 167 147 123
-1.358926 6.407297 8.923738 135 123 106
-1.256381 6.199546 8.236836 88 71 52
-1.258085 6.234417 8.212095 161 144 125
-4.388431 -6.680828 28.999706 55 102 135
-4.077131 -2.955348 26.924723 59 70 92
-3.722133 1.165366 24.679819 183 184 186
-3.742163 1.346115 24.782347 188 188 193
-3.752769 1.591727 24.823746 186 186 190
-1.732375 7.133667 11.447178 68 60 40
-1.387693 6.340921 9.187870 126 106 78
-1.370191 6.387703 9.024898 131 122 108
-1.297767 6.264101 8.580644 93 78 51
2.483428 7.656812 -16.462500 23 63 133
-4.409174 -9.963157 29.284914 34 97 161
-4.302054 -8.595713 28.709196 69 153 197
-1.760401 7.056434 11.705995 127 113 70
-1.738914 7.095187 11.572314 148 136 102
-1.240813 6.180523 8.240143 129 114 94
-1.493784 5.690896 10.009415 110 106 82
-1.723757 7.041018 11.550987 115 103 63
-1.713265 7.093172 11.479863 135 116 78
-1.281989 6.279025 8.570720 143 123 91
-4.320054 -11.943650 29.284159 35 70 119
-4.300322 -10.693094 29.026459 23 77 137
-3.650685 0.802075 24.720057 202 203 207
-3.656347 1.163588 24.673479 205 206 208
-1.698370 7.098021 11.416744 86 76 52
-1.685485 7.110950 11.351594 88 81 63
-1.551098 6.703710 10.428970 59 57 43
-1.441951 6.329482 9.721799 69 65 53
-1.342078 6.369831 9.040153 126 118 100
-1.288286 6.295133 8.677965 94 81 57
2.446350 7.704372 -16.635700 71 86 122
-4.280726 -6.788323 29.070646 20 56 94
-4.221741 -5.933483 28.818430 59 64 68
-3.660428 1.749229 25.032066 182 182 184
-1.364808 6.356864 9.246913 177 156 125
-1.350727 6.365845 9.185942 170 151 121
-1.324438 6.414937 8.964812 151 139 117
-1.213103 6.163674 8.249551 160 145 115
-4.236009 -9.231946 29.150084 16 83 147
-4.168302 -7.167319 28.590294 183 184 189
-3.592938 1.784337 24.639765 222 222 222
-1.691030 6.999916 11.593223 119 100 70
-1.546051 6.778062 10.598271 60 58 43
-1.526782 6.757914 10.493378 64 62 47
-1.371532 6.321627 9.392365 142 125 89
-1.315098 6.320981 9.019247 104 90 70
-1.319315 6.363441 9.018322 138 125 102
-1.243366 6.255718 8.510551 73 56 36
2.415075 7.627625 -16.646080 10 24 53
-4.254190 -12.270749 29.438948 93 96 104
-3.853300 -2.817286 26.677284 61 71 91
-1.925413 2.585698 13.294429 98 102 103
-1.676979 3.157605 11.557605 160 162 161
-1.686457 7.008321 11.580468 144 128 94
-1.671105 7.023152 11.519843 138 119 85
-1.653859 7.092149 11.477561 155 134 97
-1.398870 6.328743 9.655758 60 58 45
-1.197870 6.188106 8.232324 128 118 84
-1.195760 6.212633 8.225973 121 118 84
-4.104575 -7.172422 28.528856 174 178 181
-3.844241 -3.366008 26.868002 114 119 126
-3.778524 -0.825338 26.334684 137 137 140
-3.561212 0.200513 24.776184 204 205 210
-1.609361 7.071688 11.179208 58 56 39
-1.375852 6.320412 9.529963 66 63 52
-1.302836 6.350993 9.010961 145 129 104
-1.190490 6.169017 8.260395 163 144 117
-3.840007 -3.453620 26.873535 153 158 168
-3.793468 -2.810152 26.664455 114 123 142
-3.542786 0.061948 24.840706 206 207 212
-3.563981 1.438021 24.913921 218 218 221
-1.886177 2.686537 13.231660 133 137 137
-1.717474 3.407714 12.043278 125 129 131
-1.499537 6.785740 10.478826 58 54 42
-1.289603 6.383228 9.006613 124 110 83
-1.246539 6.260002 8.695231 172 157 136
-4.262084 -10.683130 30.201004 31 81 141
-3.814951 -3.265682 26.966362 80 87 97
-3.732031 -0.865511 26.439171 156 159 160
-3.499379 0.491335 24.781790 219 218 223
-3.509679 0.708547 24.760330 185 184 189
-1.333827 6.338376 9.394499 168 151 123
-4.081388 -6.031281 29.106264 192 189 193
-3.482392 0.558825 24.788048 211 210 215
-3.466587 1.840878 24.660410 231 231 231
-1.531957 6.916820 10.849065 69 69 53
-1.274930 6.317298 9.028740 155 136 106
-1.217245 6.261108 8.643681 142 126 101
-4.096217 -9.328512 29.353296 16 77 143
-3.709632 -1.308170 26.684248 46 56 65
-3.447215 0.826486 24.800529 217 217 220
-1.857772 2.571430 13.278145 125 126 126
-1.610404 2.938248 11.516114 74 76 75
-1.721132 4.293117 12.375928 131 135 134
-1.261490 6.293841 9.041355 147 128 95
-1.245900 6.383729 8.919086 112 95 78
-1.178239 6.251519 8.389800 123 106 87
-1.149796 6.160089 8.189477 121 124 76
-4.375026 -12.530528 31.569681 62 145 200
-4.453535 -11.282930 32.165318 43 64 106
-3.657111 -4.904002 26.400349 28 47 75
-3.648637 -4.345545 26.324837 196 200 205
-3.649144 -0.916816 26.491516 194 197 200
-3.458934 -0.141630 24.976383 228 227 233
-1.587087 3.085920 11.499377 129 132 135
-1.581068 7.101513 11.399605 67 60 39
-1.456205 6.795768 10.511295 48 46 31
-1.224767 6.345905 8.807231 168 152 127
-4.380888 -11.844156 31.886982 15 29 55
-4.035833 -6.098730 29.368755 182 183 189
-3.710023 -3.059705 26.953129 117 126 133
-3.679107 -2.969527 26.852705 38 48 61
-3.426813 1.319466 24.982679 198 198 199
-3.464928 1.804376 25.238033 245 245 246
-1.690232 3.557722 12.303735 118 123 126
-1.658655 4.530189 12.074663 120 124 125
-1.585519 6.980833 11.505609 113 99 70
-1.255026 6.260141 9.097589 119 99 62
-1.176137 6.209481 8.508274 117 102 79
-1.162721 6.260141 8.399885 89 74 47
-4.350141 -10.335582 31.840475 14 63 122
-3.635576 -3.586875 26.666296 216 220 223
-3.626592 -1.508490 26.734026 84 88 97
-3.613250 -0.934917 26.490768 114 116 125
-3.395049 0.249548 24.871105 215 215 220
-3.385831 1.073195 24.818096 222 222 226
-1.299817 6.307254 9.514976 69 67 52
-1.300413 6.314055 9.437084 58 55 40
-1.279507 6.333231 9.356651 175 162 135
-4.244281 -10.524302 31.419697 37 78 128
-3.573478 -2.720472 26.379078 46 51 62
-1.557821 3.056114 11.504849 118 126 129
-1.272165 5.379667 9.355947 119 114 94
-3.595098 -1.521504 26.687498 68 77 89
-1.543932 3.080701 11.504912 122 128 131
-1.666761 4.127906 12.408542 113 119 121
-1.552287 7.031624 11.494442 134 120 81
-1.540873 7.119779 11.443120 92 82 60
-1.263608 6.329830 9.345555 130 114 87
-1.229438 6.268832 9.121612 139 118 81
-1.211490 6.336856 8.988043 161 146 120
-3.498529 -2.473936 26.343866 29 37 49
-3.317987 -0.043999 24.991589 238 237 240
-3.319534 0.695276 24.898811 199 199 204
-3.095701 2.009049 23.260656 204 204 204
-1.397552 6.764399 10.491422 66 64 47
-1.207175 6.261555 9.040679 204 180 149
-3.644069 -8.950074 27.607632 19 62 126
-1.261029 6.289130 9.505629 63 59 47
-1.085536 6.121137 8.154198 140 125 95
-1.088564 6.141002 8.164396 86 79 36
-3.783705 -10.838647 28.965336 190 200 206
-3.297260 1.255015 25.021040 204 203 207
-3.263222 1.561120 24.905067 204 203 208
-3.287328 1.783038 25.167818 209 210 211
-1.502257 3.114374 11.482256 124 129 133
-1.217130 6.253794 9.215349 75 63 36
-1.182464 6.285785 9.012941 97 81 52
-1.146947 6.235899 8.699395 113 104 68
-1.115885 6.237777 8.470095 150 135 101
-3.752912 -11.516540 28.902609 61 143 200
-3.452884 -1.022661 26.461409 127 126 132
-3.261441 0.982437 24.952032 227 226 231
-3.254308 1.093106 24.943449 205 204 209
-1.312472 5.765935 10.097817 126 121 99
-1.180281 6.256147 9.062382 156 135 95
-1.114679 6.198092 8.528447 109 96 68
-1.112936 6.200666 8.494232 154 142 122
-1.103466 6.248493 8.426459 151 132 105
-3.667537 -9.162055 28.425293 22 78 145
-3.692243 -9.142694 28.670713 17 76 142
-3.570951 -6.928018 27.766008 29 37 45
-3.400635 -2.225844 26.405619 48 53 58
-3.040997 1.771607 23.657671 165 166 165
-2.415475 1.553505 18.757044 219 219 220
-1.476845 4.738751 11.415527 114 114 103
-1.230329 6.257900 9.474704 56 53 38
-1.099865 6.212419 8.464425 134 121 87
-1.060980 6.204835 8.177748 103 93 56
-3.213869 1.198319 25.028681 210 211 215
-1.695924 2.750759 13.214513 157 158 152
-1.098303 6.201780 8.509045 145 129 102
-3.652990 -12.024265 28.723467 143 166 195
-3.639579 -10.105758 28.634510 34 63 118
-3.570223 -9.389477 28.269737 55 59 68
-3.685464 -8.226716 29.040756 21 56 93
-1.383138 6.595592 10.820310 80 73 44
-1.336070 6.740839 10.496895 44 47 28
-3.486278 -9.293274 27.819160 149 164 185
-3.652987 -8.464404 29.040741 211 219 222
-3.314482 -2.510533 26.402338 178 179 183
-3.322850 -1.964856 26.471930 67 70 78
-1.785592 2.435136 14.202947 159 160 162
-1.151704 6.230271 9.155556 146 134 92
-1.134421 6.323815 8.974555 133 127 88
-1.077743 6.204146 8.546202 101 87 60
-3.581741 -10.772935 28.811615 171 175 182
-3.584471 -10.249941 28.714376 69 143 202
-3.304722 -1.888658 26.438852 122 123 128
-1.514752 4.023199 12.089620 125 129 130
-1.356951 6.630683 10.787242 90 77 51
-1.301318 6.759648 10.403316 49 48 30
-1.172811 6.230761 9.357720 76 70 55
-1.142173 6.245668 9.123919 112 98 60
-1.139387 6.258873 9.013953 149 145 92
-3.510068 -9.320975 28.226511 13 23 45
-3.521444 -6.571581 28.443287 60 120 156
-3.508945 -5.879415 28.348341 205 206 211
-3.264966 -4.991028 26.391712 55 118 159
-3.252900 -4.717125 26.329912 59 99 160
-2.342982 1.523319 18.978218 225 225 226
-1.145775 6.214989 9.169868 59 50 37
-1.058138 6.210303 8.531575 124 107 82
-1.048927 6.269318 8.430717 149 129 104
-3.539900 -11.497221 28.903990 62 145 203
-3.248013 -4.919009 26.380377 59 66 88
-3.202229 -3.614837 26.152891 103 102 118
-3.228410 -2.401458 26.355459 151 154 162
-3.262950 -1.390222 26.657808 224 223 228
-1.432695 3.553495 11.659325 124 128 129
-1.420373 4.817481 11.521027 129 127 113
-1.153208 4.436231 9.363503 135 128 110
-1.288681 6.748365 10.457954 59 61 40
-1.128919 6.219737 9.142204 115 110 71
-1.009876 6.199848 8.155300 119 100 74
-3.518061 -10.778421 28.812817 161 166 174
-3.503601 -10.237740 28.726028 68 142 201
-3.210139 -4.711514 26.323456 54 95 156
-3.203328 -2.228667 26.336903 167 166 170
-1.388563 3.138202 11.354999 119 126 131
-1.117697 6.229244 9.112505 132 128 88
-1.119864 6.169419 9.233980 55 49 38
-1.046750 6.167968 8.625587 68 73 29
-1.032836 6.211594 8.529609 188 174 153
-3.445296 -10.170211 28.702120 26 81 145
-3.142010 -2.623186 26.332945 178 178 180
-3.175081 -1.609986 26.538628 35 37 49
-3.192698 -1.441690 26.621113 104 107 115
-2.937468 1.505301 24.552681 226 227 231
-2.277919 1.505526 18.957287 227 227 226
-1.268072 6.688311 10.560890 139 136 99
-1.078452 6.294112 8.949346 84 78 57
-1.059207 6.254591 8.777201 118 118 68
-1.007618 6.254688 8.386819 163 144 116
-3.428474 -12.527256 28.891499 31 84 160
-3.497425 -8.677974 29.423721 64 148 193
-2.928657 1.418725 24.649137 228 227 232
-1.751730 2.424974 14.828246 140 144 145
-1.349134 3.251581 11.376056 130 134 135
-1.086140 6.209885 9.111601 130 130 92
-1.021653 6.169312 8.556996 93 79 53
1.987952 7.773237 -16.815874 144 146 150
-3.417032 -12.128440 28.954439 164 178 196
-3.393649 -11.535985 28.973274 70 139 198
-3.104185 -2.336138 26.327793 197 197 201
-3.099131 -2.188344 26.402414 218 217 222
-3.111185 -1.860789 26.461044 201 200 205
-2.232360 1.494201 19.004646 229 229 229
-1.212981 6.706360 10.277830 74 68 53
-0.963346 6.167037 8.144205 129 112 95
1.966655 7.665508 -16.818834 13 41 92
1.961329 7.476272 -16.812908 19 54 111
-3.356525 -11.202678 28.913988 35 78 142
-3.279683 -9.722039 28.059780 28 71 137
-1.304121 3.096089 11.236773 125 130 132
-1.215619 6.706931 10.373951 73 72 54
-1.061557 6.244419 9.052383 113 104 56
-1.053465 6.278020 8.974924 89 102 57
-1.042233 6.282498 8.901421 86 84 57
-1.027076 6.264961 8.820975 100 95 62
-0.985358 6.263850 8.401040 124 105 80
-3.329271 -10.853233 28.914236 152 162 178
-3.323806 -10.283459 28.807699 78 138 191
-3.049725 -2.069815 26.432352 171 171 174
-2.802828 1.623354 24.354221 193 193 196
-1.061788 6.170561 9.181748 70 68 55
-0.981655 6.207314 8.454574 88 73 53
-3.331923 -11.840815 29.016068 10 42 91
-3.298677 -11.073650 28.928413 18 56 101
-3.298869 -10.944411 28.947330 31 65 113
-3.156873 -9.230106 27.668484 180 185 193
-3.309563 -9.145545 28.948784 82 153 208
-3.340585 -8.872715 29.260145 37 83 137
-3.349435 -8.814092 29.343142 61 129 181
-2.998427 -2.624287 26.109352 163 162 168
-1.284851 3.000145 11.247890 183 183 172
-1.065705 4.130978 9.302465 113 106 88
-1.061523 4.135691 9.284483 108 101 83
-1.188767 6.702628 10.375196 65 64 43
-1.038897 6.259933 9.010742 120 119 70
-3.290032 -10.710536 28.960371 19 30 63
-2.999767 -1.726701 26.560734 148 149 155
-1.005907 6.237599 8.859070 125 125 101
-0.984501 6.184951 8.636610 101 93 58
-3.260449 -12.533027 28.974766 30 90 163
-3.204658 -9.333993 28.330765 22 37 70
-3.345534 -8.415394 29.727276 32 49 75
-3.197511 -6.855907 28.419182 21 43 68
-3.195224 -6.796159 28.399929 24 48 77
-3.106128 -5.490021 27.622828 25 54 82
-2.896181 -2.422960 25.807587 177 177 179
-2.967626 -1.874878 26.391403 219 218 221
-2.986651 -1.478483 26.631735 219 218 223
-1.027956 6.216433 9.093647 75 82 49
-0.996809 6.267937 8.786857 63 58 27
-0.951534 6.245509 8.391705 122 106 78
-0.924344 6.152367 8.141380 160 143 112
1.879247 7.404116 -16.793739 23 82 156
-3.226183 -11.560474 29.009064 67 130 189
-3.256015 -9.012877 29.307886 24 55 88
-2.921426 -0.878511 26.224739 224 224 229
-1.084612 6.433928 9.691720 65 59 43
-1.028352 6.166285 9.173181 50 47 32
-0.958214 6.186695 8.585735 110 103 78
-0.959807 6.199956 8.560155 78 71 49
-0.943547 6.220518 8.439573 166 149 123
-3.175221 -10.317601 28.885500 49 122 181
-3.115947 -9.851825 28.271652 25 77 136
-3.036011 -9.261946 27.533745 27 104 156
-3.250923 -8.709039 29.479418 20 42 75
-0.942093 6.217778 8.501091 96 79 58
-2.934605 -4.992220 26.968365 85 97 124
-2.816504 -2.124377 25.844069 206 206 208
-1.027263 5.778470 9.342800 60 58 47
-1.136455 6.660785 10.365290 65 69 45
1.801477 7.470365 -16.561411 13 69 149
-3.145342 -9.189089 29.071341 67 144 199
-2.971810 -5.401163 27.450403 26 37 56
-2.815656 -1.799620 26.139862 193 192 196
-1.017147 5.855173 9.372218 70 75 51
-1.128096 6.643104 10.413323 101 105 77
-3.152564 -8.833948 29.348352 60 140 177
-3.168392 -8.402702 29.602640 21 46 76
-2.723910 -2.563346 25.486885 173 172 177
-2.803009 -1.928946 26.019520 194 195 199
-2.828947 -1.313536 26.300232 162 163 170
-2.742825 -0.935635 25.604712 211 212 213
-0.985293 6.140967 9.225896 65 59 42
-0.979477 6.149901 9.145666 65 62 45
-0.957555 6.209983 8.881571 121 113 73
-0.906203 6.239207 8.390221 105 88 63
-0.881819 6.170011 8.195076 154 134 108
-3.091468 -10.751532 29.052967 26 59 113
-2.716906 -2.489998 25.459715 219 219 222
-2.739759 -2.014086 25.695883 207 206 211
-2.759362 -1.193029 26.080896 181 183 190
-2.002230 1.682383 18.941540 182 182 179
-0.948486 6.178193 8.885308 134 130 84
-0.928662 6.206190 8.673545 121 105 88
-0.866525 6.155983 8.120519 147 131 106
-3.050380 -11.900681 29.146503 29 70 123
-2.663526 -2.308040 25.451450 178 177 183
-2.684825 -2.243452 25.504341 199 198 203
-2.739816 -1.498213 26.080303 190 191 195
-2.580855 1.312825 24.576447 215 213 219
-1.609817 2.205618 15.341957 108 112 117
-0.955426 6.173371 9.043620 76 78 56
-0.931284 6.198377 8.818872 130 126 78
-0.925270 6.237695 8.779964 140 131 98
1.712010 7.667859 -16.369991 21 60 134
-2.658792 -0.845592 25.507530 205 204 207
-0.884828 6.208115 8.478838 198 185 165
-0.878487 6.212144 8.368180 161 146 126
1.707220 7.569322 -16.431202 21 33 48
-3.043689 -8.815282 29.643345 54 138 182
-2.630867 -1.062475 25.660612 166 167 173
-2.531444 0.979332 24.557121 219 218 223
-2.496442 1.657691 24.313351 182 182 185
-2.142381 1.534796 20.782829 213 213 211
-1.563370 2.388653 15.176394 144 145 140
-1.069632 6.685717 10.390736 120 120 94
-0.872952 6.214713 8.401129 117 104 77
-3.010500 -8.748665 29.642080 60 128 170
-2.580269 -2.437945 25.375061 185 185 187
-0.986842 5.714514 9.656381 106 102 81
-0.933687 6.138881 9.127582 68 66 51
-0.915023 6.152102 8.928858 97 97 51
-0.871979 6.193573 8.516871 84 75 55
-2.943656 -12.099896 29.183706 36 44 67
-2.957096 -10.816357 29.112816 11 37 77
-2.542579 -2.558460 25.267942 184 185 189
-2.470236 1.314240 24.592684 200 201 205
-1.138420 3.003668 11.211327 73 81 86
-1.012209 6.599107 9.984219 65 62 43
-2.890872 -10.407187 29.020836 43 125 179
-2.537801 -1.517043 25.449629 180 179 184
-1.536588 2.194973 15.339143 134 136 136
-1.399916 3.408599 14.058634 106 103 96
-0.952785 5.667958 9.526715 114 109 87
-0.887621 6.208434 8.811193 129 125 77
-2.857332 -10.878753 28.935019 114 143 177
-2.876827 -9.230737 29.134682 65 145 198
-2.611131 -4.489182 26.376682 61 134 174
-2.503959 -1.673790 25.367470 200 201 206
-2.501153 -0.921914 25.467754 189 190 194
-1.457592 2.732431 14.806681 114 110 103
-0.899673 6.103156 9.109553 53 50 35
-0.816509 6.139665 8.245946 172 154 131
-2.458372 -1.816902 25.127985 183 184 189
-2.479433 -1.306265 25.437632 183 183 189
-2.494714 -0.794354 25.517210 180 179 184
-1.470052 2.617798 14.968946 115 110 103
-1.450076 2.778383 14.859315 109 104 98
-1.000597 3.361263 10.270772 136 138 137
-1.005130 3.383283 10.232115 141 143 139
-0.923826 5.880458 9.419188 63 62 34
-1.010665 6.731144 10.297134 88 82 59
-0.865292 6.247164 8.776236 61 47 20
-0.843677 6.185622 8.608739 130 112 85
-0.793874 6.124798 8.071454 108 92 58
-2.804647 -11.577168 28.970535 62 144 198
-1.444357 2.718186 14.909293 115 110 104
-1.000228 6.685068 10.361819 107 104 75
-0.880907 6.107879 9.058679 71 71 57
-0.862167 6.140631 8.912539 54 56 39
-2.571909 -5.155130 26.901009 65 136 171
-2.417556 -2.401368 25.160280 209 209 211
-2.432906 -1.509977 25.349287 207 206 211
-2.415088 -1.403089 25.347563 176 175 181
-2.446223 -0.725506 25.566023 203 202 207
-0.923028 6.006901 9.572150 92 99 58
-0.850658 6.183342 8.854782 144 139 101
-0.849825 6.195029 8.828429 159 148 99
-2.840470 -8.767570 30.096891 87 88 93
-2.323116 0.985491 24.662676 225 224 229
-1.447280 2.335762 15.191726 113 113 109
-0.784825 6.144320 8.222596 133 123 107
-2.527644 -8.946418 26.925226 70 73 87
-2.372454 -1.150942 25.366220 196 195 200
-1.049983 3.077452 11.183651 104 100 98
-0.768662 6.150759 8.178082 184 172 144
-2.321704 -2.163148 25.034639 196 195 200
-2.363628 -0.544515 25.683348 165 166 172
-2.263395 1.713384 24.492571 236 236 237
-0.825574 6.195115 8.836558 96 86 47
-0.817214 6.223548 8.814937 128 121 92
-0.790477 6.147292 8.482442 156 146 123
-0.754887 6.131055 8.062756 111 93 61
-2.412184 -3.931879 26.227692 53 121 163
-2.392160 -3.755373 26.291040 90 93 119
-2.254976 1.041507 24.691387 199 198 203
-2.260277 1.304194 24.581963 216 217 221
-1.396033 2.254249 15.289307 151 152 149
-1.025331 2.956931 11.229954 130 140 158
-0.952827 6.711960 10.341279 126 123 91
-0.942468 6.726845 10.276145 62 63 39
-0.828396 6.114416 9.029447 67 69 55
-0.800298 6.235582 8.696057 106 90 68
-0.765701 6.157035 8.301703 132 113 87
-0.751865 6.140672 8.120066 123 116 86
-3.119803 -9.832801 34.545906 27 57 91
-2.278358 -2.327778 25.039045 241 240 243
-2.270220 -2.277559 25.043528 201 200 205
-2.284331 -1.063640 25.283546 189 188 191
-2.233298 0.691273 24.671848 229 229 231
-0.990211 4.707520 10.940445 113 113 104
-0.820431 6.100637 9.057320 49 52 37
-0.806654 6.134192 8.875257 103 101 66
-2.244413 -1.418476 25.222136 163 163 170
-2.264042 -1.184863 25.200855 198 198 203
-2.304271 -0.438741 25.676931 174 177 183
-2.196837 1.657828 24.496653 209 209 211
-1.331974 2.897995 14.923749 145 141 130
-0.790040 6.226887 8.736977 144 130 109
-2.355374 -4.376958 26.504839 38 62 93
-2.185689 0.759748 24.633972 217 217 220
-1.328593 2.772053 14.982010 151 148 137
-0.912583 3.608657 10.316262 120 125 126
-0.891922 6.606288 10.002751 56 53 36
-0.787160 6.132875 8.866443 171 169 133
-0.782767 6.173597 8.795761 125 113 76
-0.724218 6.130486 8.155343 175 164 130
-2.184950 -2.584707 25.021807 203 201 206
-2.195969 -1.859664 25.005350 191 190 195
-2.194236 -1.288060 25.130642 214 214 215
-0.985488 2.966110 11.280642 104 108 119
-0.931935 4.221314 10.654109 115 119 118
-0.846522 6.065723 9.683281 96 88 50
-0.875317 6.614985 9.981402 71 70 55
-0.780252 6.216128 8.779827 120 102 77
-0.731903 6.148457 8.296373 89 70 50
-2.166829 -2.478968 25.070059 164 165 169
-2.157440 -1.525501 24.979664 229 229 231
-2.180968 -0.701066 25.361301 139 140 149
-2.178282 0.225787 25.185120 224 223 228
-0.935667 4.639832 10.892861 119 123 122
-0.870393 6.566470 10.016884 71 67 41
-0.790563 6.092087 9.090487 64 62 47
-0.766616 6.136740 8.843121 95 91 52
-0.729539 6.117878 8.371688 146 131 104
-0.693250 6.083841 7.999387 176 170 138
-2.454379 -10.802797 28.756609 159 165 173
-2.138519 -2.279536 25.098322 168 167 172
-2.180398 -0.514356 25.577433 142 149 165
-2.135732 0.356416 25.116802 200 200 202
-2.094587 1.170241 24.702883 157 158 161
-1.309473 2.243148 15.410337 119 120 114
-0.862959 6.515439 10.040208 115 95 63
-2.112614 -1.151830 25.134275 183 182 187
-2.166347 -0.349420 25.805071 179 180 185
-2.084949 1.024920 24.701735 170 169 174
-1.268877 2.519290 15.170665 150 145 139
-0.925914 4.641509 10.899128 119 123 122
-0.735266 6.220459 8.687035 140 123 103
-0.705877 6.106536 8.304377 71 51 35
-0.704143 6.119794 8.297891 108 92 67
-2.139647 -0.152894 25.686644 243 243 245
-0.661011 3.673248 7.873259 141 136 116
-0.752835 6.104455 9.032672 44 46 32
-0.753432 6.117415 8.973757 51 53 39
-0.742156 6.170258 8.759671 105 89 57
-0.685698 6.120698 8.199638 130 114 80
-2.369052 -10.799415 28.735941 144 146 154
-2.352846 -10.304785 28.788977 65 148 202
-2.079893 -3.571514 25.145596 135 143 161
-2.081555 -2.069883 25.282026 164 164 170
-2.060048 -0.904643 25.203354 178 178 182
-2.035201 1.302763 24.642162 196 197 200
-2.010562 1.640297 24.579634 239 239 239
-1.244072 2.384524 15.216244 126 120 112
-0.963692 2.989201 11.766076 130 132 154
-0.843383 3.673501 10.308496 113 119 119
-0.857156 4.078380 10.458368 118 123 124
-0.738646 5.509244 9.014536 110 104 82
-0.691247 6.112457 8.410045 88 76 59
-2.342800 -12.175143 28.975861 186 200 219
-2.064630 -2.204787 25.322153 212 213 218
-2.037418 -1.452896 25.211689 176 175 180
-2.036123 -1.194040 25.122038 185 186 190
-2.067144 -0.652150 25.423264 127 134 150
-2.082068 -0.339476 25.869680 230 231 242
-1.229576 2.318927 15.269898 128 124 115
-1.250863 3.239662 15.386317 146 142 133
-0.825386 3.502138 10.178456 105 111 114
-0.840125 3.721006 10.346933 105 110 113
-0.832703 3.775682 10.385203 111 116 118
-0.816281 6.566157 10.010317 62 60 35
-0.668065 6.145589 8.179206 131 127 87
-2.304340 -11.995338 28.960138 14 28 57
-2.015495 -1.735606 25.269949 204 203 208
-0.809513 3.432840 10.112190 116 121 120
-0.874917 4.768939 10.948421 143 140 123
-0.805245 6.417588 10.006762 96 87 51
-0.802981 6.503891 10.034925 81 75 41
-0.670647 6.115400 8.356000 101 89 72
-0.647663 6.123591 8.078519 131 133 89
-2.271526 -10.813396 28.799343 136 140 147
-1.997350 -3.823276 25.412901 57 131 167
-2.002164 -3.446093 25.383480 197 198 203
-2.000226 -2.173860 25.308367 158 156 166
-0.703605 6.081262 8.896309 59 61 47
-0.693181 6.214997 8.709249 74 59 40
-0.668270 6.109136 8.335906 131 120 108
-0.646147 6.131808 8.194342 123 109 75
-2.266427 -12.011485 28.954138 20 36 61
-1.975200 -2.510555 25.332579 157 157 167
-1.935753 0.998626 24.794962 181 181 183
-0.911434 3.128762 11.649974 103 100 95
-0.631481 3.686189 8.036129 119 111 92
-0.780026 6.300676 9.939582 120 109 77
-0.711499 6.128511 9.088170 42 46 31
-0.689837 6.158521 8.771837 168 153 110
-0.687119 6.175062 8.758659 110 96 65
-0.647253 6.136200 8.235015 138 126 104
-1.939562 -2.339050 25.349989 219 222 228
-1.925533 -1.273325 25.224304 227 227 230
-1.895297 1.581029 24.740341 166 167 170
-0.666672 5.359131 8.691704 116 111 90
-0.690545 6.089580 8.955726 54 56 43
-1.916749 -1.647079 25.301884 234 234 239
-1.924483 -0.983959 25.351269 202 206 209
-1.897304 0.459663 25.152754 202 202 204
